-0.5,-0.5,-0.5,-0.5
-0.5,-0.5,-0.5,-0.1112604669781572
-0.5,-0.5,-0.5,0.5
-0.5,-0.5,0,0.5
-0.5,-0.5,0.24999999999999997,0.1112604669781572
-0.5,-0.5,0.5,-0.5
-0.5,-0.5,0.5,0.5
-0.5,-0.40450849718747373,0,-0.31174490092936674
-0.5,-0.1545084971874737,-0.5,0.5
-0.5,-0.1545084971874737,0.4330127018922193,-0.1112604669781572
-0.5,-0.1545084971874737,0.5,-0.5
-0.5,0.1545084971874737,-0.5,-0.31174490092936674
-0.5,0.1545084971874737,-0.24999999999999997,-0.5
-0.5,0.1545084971874737,0.24999999999999997,0.5
-0.5,0.5,-0.5,-0.5
-0.5,0.5,-0.5,0.5
-0.5,0.5,-0.24999999999999997,-0.1112604669781572
-0.5,0.5,0,-0.5
-0.5,0.5,0.5,-0.5
-0.5,0.5,0.5,0.1112604669781572
-0.5,0.5,0.5,0.5
-0.35355339059327373,-0.5,-0.24999999999999997,-0.31174490092936674
-0.35355339059327373,-0.5,0.24999999999999997,-0.5
-0.35355339059327373,-0.5,0.5,-0.1112604669781572
-0.35355339059327373,-0.1545084971874737,-0.5,-0.5
-0.35355339059327373,0.1545084971874737,-0.5,0.5
-0.35355339059327373,0.1545084971874737,0.5,0.31174490092936674
-0.35355339059327373,0.40450849718747373,0.24999999999999997,-0.45048443395120957
-0.35355339059327373,0.5,-0.5,0.1112604669781572
-0.35355339059327373,0.5,0.24999999999999997,0.5
0,-0.5,-0.5,-0.5
0,-0.5,0.5,0.5
0,-0.40450849718747373,-0.5,0.45048443395120957
0,-0.40450849718747373,0.5,-0.5
0,-0.1545084971874737,-0.24999999999999997,-0.5
0,0.1545084971874737,0,0.1112604669781572
0,0.40450849718747373,-0.5,-0.5
0,0.40450849718747373,0.4330127018922193,0.5
0,0.5,-0.5,0.5
0,0.5,-0.24999999999999997,0.31174490092936674
0,0.5,0.5,-0.5
0,0.5,0.5,-0.1112604669781572
0.35355339059327373,-0.5,0.24999999999999997,0.5
0.35355339059327373,-0.40450849718747373,-0.4330127018922193,-0.1112604669781572
0.35355339059327373,-0.1545084971874737,0.5,0.5
0.35355339059327373,0.1545084971874737,-0.5,0.5
0.35355339059327373,0.1545084971874737,0.5,-0.5
0.35355339059327373,0.5,0.24999999999999997,-0.31174490092936674
0.5,-0.5,-0.5,-0.5
0.5,-0.5,-0.5,0.5
0.5,-0.5,-0.24999999999999997,0.31174490092936674
0.5,-0.5,0,-0.5
0.5,-0.5,0.24999999999999997,-0.31174490092936674
0.5,-0.5,0.5,-0.5
0.5,-0.5,0.5,0.1112604669781572
0.5,-0.5,0.5,0.5
0.5,-0.1545084971874737,-0.5,0.31174490092936674
0.5,-0.1545084971874737,-0.24999999999999997,0.5
0.5,-0.1545084971874737,0.24999999999999997,-0.5
0.5,-0.1545084971874737,0.5,-0.31174490092936674
0.5,0.1545084971874737,-0.5,-0.5
0.5,0.1545084971874737,0.5,0.5
0.5,0.40450849718747373,-0.24999999999999997,-0.5
0.5,0.5,-0.5,-0.5
0.5,0.5,-0.5,-0.1112604669781572
0.5,0.5,-0.5,0.5
0.5,0.5,0,0.5
0.5,0.5,0.24999999999999997,0.1112604669781572
0.5,0.5,0.5,-0.5
0.5,0.5,0.5,0.5
